              699133.508             3405481.951    0.044
              699116.708             3405493.342    0.044
              699119.745             3405489.577    0.044
              699122.659             3405485.816    0.044
              699125.422             3405482.092    0.044
              699127.973             3405478.448    0.044
              699111.236             3405488.808    0.044
              699114.268              3405485.15    0.044
              699117.225              3405481.55    0.044
              699120.064              3405478.05    0.044
              699122.702             3405474.704    0.044
              699105.725             3405484.206    0.044
              699108.822             3405480.557    0.044
              699111.896             3405477.023    0.044
              699114.881             3405473.659    0.044
              699117.666             3405470.555    0.044
              699100.234             3405479.571    0.044
              699103.477             3405475.864    0.044
              699106.751             3405472.326    0.044
              699109.971             3405469.028    0.044
              699113.016             3405466.066    0.044
              699116.007             3405463.315    0.044
              699094.735              3405474.84    0.044
              699098.213             3405470.988    0.044
              699101.766              3405467.35    0.044
               699105.29             3405464.059    0.044
              699108.793             3405461.036    0.044
              699112.522             3405458.214    0.044
              699089.375             3405470.139    0.044
               699093.13             3405466.118    0.044
              699096.998             3405462.371    0.044
              699100.959             3405458.914    0.044
              699104.798             3405455.839    0.044
                699108.8             3405452.963    0.044
              699112.746             3405450.389    0.044
              699084.139              3405465.42    0.044
              699088.245             3405461.167    0.044
              699092.497             3405457.241    0.044
              699096.719             3405453.785    0.044
              699101.049             3405450.602    0.044
              699105.484             3405447.756    0.044
              699109.833             3405445.023    0.044
              699078.887             3405460.576    0.044
              699083.348             3405456.078    0.044
              699087.964              3405451.93    0.044
              699092.674             3405448.299    0.044
               699097.48             3405445.236    0.044
              699102.369             3405442.386    0.044
              699074.034             3405455.977    0.044
               699078.86              3405451.27    0.044
               699083.87             3405446.971    0.044
                699089.1             3405443.141    0.044
               699094.53             3405439.885    0.044
              699069.471              3405451.51    0.044
              699074.698             3405446.587    0.044
              699080.158             3405442.113    0.044
              699085.898             3405438.131    0.044
              699091.938             3405434.743    0.044
              699064.872             3405446.867    0.044
              699070.497             3405441.701    0.044
              699076.394             3405436.963    0.044
              699082.671             3405432.711    0.044
              699089.234             3405429.256    0.0461
              699060.256             3405442.085    0.044
              699066.216             3405436.682    0.044
              699072.452              3405431.62    0.0461
              699079.146             3405426.908    0.0461
              699085.924             3405423.065    0.0461
              699055.674             3405437.225    0.04143
              699061.876             3405431.638    0.0461
              699068.314             3405426.256    0.0461
              699075.272             3405420.955    0.0461
              699082.199             3405416.545    0.0461
              699051.228             3405432.394    0.04533
              699057.573             3405426.718    0.0461
               699064.08             3405421.105    0.0461
              699071.118             3405415.296    0.0461
               699078.09             3405410.099    0.0461
              699046.892             3405427.545    0.04533
               699053.29             3405421.867    0.04533
              699059.773             3405416.112    0.0461
              699066.698             3405409.976    0.0461
              699073.191             3405404.164    0.0461
              699042.536             3405422.561    0.04533
              699048.906              3405416.94    0.04533
              699055.253             3405411.138    0.04533
              699061.812             3405404.845    0.0461
              699067.795             3405398.481    0.0461
              699038.137             3405417.429    0.04533
              699044.379             3405411.932    0.04533
              699050.486              3405406.18    0.04533
              699056.541             3405399.935    0.0461
              699061.824             3405393.425    0.0461
              699033.708             3405412.199    0.04533
              699039.749             3405406.896    0.04533
              699045.562             3405401.322    0.04533
              699051.102             3405395.321    0.04533
              699056.016             3405389.055    0.04533
              699029.273             3405406.899    0.04533
              699035.082             3405401.834    0.04533
              699040.608             3405396.524    0.04533
              699045.793             3405390.957    0.04533
               699049.98             3405385.276    0.04533
              699024.836             3405401.544    0.04533
              699030.408             3405396.735    0.04533
              699035.685             3405391.732    0.04533
              699040.542             3405386.609    0.04533
              699044.603              3405381.48    0.04533
              699020.423             3405396.164    0.04533
              699025.796             3405391.598    0.04533
               699030.91             3405386.899    0.04533
              699035.645             3405382.184    0.04533
              699039.864             3405377.563    0.04533
              699016.034             3405390.776    0.04533
              699021.267             3405386.399    0.04533
              699026.306             3405381.957    0.04533
              699031.055             3405377.575    0.04533
              699035.433              3405373.36    0.04533
               699011.67             3405385.411    0.04533
              699016.826             3405381.141    0.04533
               699021.87             3405376.873    0.04533
              699026.723             3405372.722    0.04533
               699031.34             3405368.794    0.04533
              699007.312               3405380.1    0.04533
              699012.452             3405375.846    0.04533
              699017.558             3405371.653    0.04533
              699022.587             3405367.619    0.04533
              699027.502             3405363.852    0.04533
              699002.932             3405374.845    0.04533
              699008.102             3405370.535    0.04533
              699013.334             3405366.322    0.04533
               699018.59               3405362.3    0.04533
              699023.838             3405358.577    0.04533
              698998.504             3405369.669    0.04533
              699003.759             3405365.217    0.04533
              699009.158             3405360.911    0.04533
              699014.667             3405356.814    0.04533
              699020.253             3405353.029    0.04533
              698994.017             3405364.578    0.04533
                698999.4             3405359.927    0.04533
              699004.989             3405355.455    0.04533
              699010.756             3405351.212    0.04533
              699016.674             3405347.283    0.04533
              698989.465             3405359.569    0.04533
              698995.005             3405354.675    0.04533
              699000.797             3405349.987    0.04533
              699006.818             3405345.542    0.04533
              699013.046              3405341.41    0.0475
              698984.852             3405354.633    0.04533
              698990.568             3405349.472    0.04533
              698996.564             3405344.533    0.04533
              699002.828             3405339.849    0.0475
              699009.341             3405335.471    0.0475
              698980.187             3405349.756    0.04533
              698986.083             3405344.319    0.04533
              698992.279             3405339.112    0.0475
              698998.768              3405334.16    0.0475
              699005.537             3405329.507    0.0475
              698975.484             3405344.936    0.04533
              698981.556             3405339.225    0.0475
              698987.937             3405333.739    0.0475
               698994.63             3405328.499    0.0475
              699001.629              3405323.55    0.0475
              698970.762             3405340.174    0.0475
              698976.996             3405334.202    0.0475
              698983.537             3405328.432    0.0475
              698990.411             3405322.892    0.0475
              698997.613              3405317.63    0.0475
              698966.037             3405335.474    0.0475
              698972.404             3405329.255    0.0475
              698979.076               3405323.2    0.0475
              698986.101             3405317.346    0.0475
              698993.472             3405311.766    0.0475
              698961.317             3405330.838    0.04703
              698967.778              3405324.39    0.0475
              698974.535             3405318.046    0.0475
              698981.674             3405311.852    0.0475
              698989.179             3405306.026    0.0475
              698956.609             3405326.275    0.04703
              698963.108             3405319.623    0.04703
              698969.886             3405312.974    0.0475
              698977.089              3405306.39    0.0475
              698984.513              3405300.27    0.0475
                698951.9              3405321.78    0.04703
              698958.358             3405314.952    0.04703
              698965.065             3405307.985    0.04703
              698972.247             3405300.907    0.0475
              698979.762              3405294.45    0.0475
              698947.232             3405317.393    0.04703
              698953.537             3405310.436    0.04703
               698960.08             3405303.198    0.04703
              698967.143             3405295.547    0.0475
               698974.62              3405288.38    0.0475
              698942.673             3405313.195    0.04703
              698948.721             3405306.149    0.04703
              698955.096             3405298.781    0.04703
              698962.038             3405290.792    0.04703
              698969.423             3405282.639    0.0475
              697732.473             3410318.591    0.0258
              697735.366               3410315.4    0.0258
              697738.184             3410312.186    0.0258
              697740.944             3410308.956    0.0258
              697743.671             3410305.701    0.0258
               697746.34             3410302.458    0.0258
              697748.939             3410299.243    0.0258
              697751.557             3410296.044    0.0258
              697754.163              3410292.89    0.0258
              697756.896             3410289.665    0.02557
              697726.227             3410312.809    0.0258
              697720.302             3410307.213    0.0258
              697723.151             3410304.201    0.0258
              697729.086             3410309.706    0.0258
              697725.956             3410301.177    0.0258
              697731.894             3410306.595    0.0258
              697728.733             3410298.137    0.0258
              697734.659             3410303.466    0.0258
              697731.488             3410295.077    0.0258
              697737.388             3410300.321    0.0258
              697734.229             3410291.992    0.0258
              697740.094             3410297.155    0.0258
               697736.96             3410288.885    0.0258
               697742.79              3410293.98    0.0258
              697739.681             3410285.765    0.0258
              697745.472             3410290.821    0.0258
              697742.405             3410282.627    0.0258
              697748.158             3410287.667    0.0258
               697745.13             3410279.485    0.0258
              697750.906             3410284.496    0.02557
              697714.723             3410301.855    0.0258
              697706.925              3410294.34    0.0258
              697709.836             3410291.471    0.0258
              697717.563             3410298.895    0.0258
              697712.721             3410288.635    0.0258
              697720.374             3410295.941    0.0258
              697715.579             3410285.805    0.0258
              697723.164             3410292.977    0.0258
              697718.412             3410282.969    0.0258
              697725.935             3410289.996    0.0258
              697721.221             3410280.112    0.0258
              697728.693             3410286.989    0.0258
              697724.001             3410277.227    0.02507
              697731.436             3410283.954    0.0258
              697726.737              3410274.31    0.02507
              697734.157             3410280.892    0.0258
              697729.431             3410271.344    0.02507
              697736.864             3410277.797    0.0258
              697732.055             3410268.333    0.02507
              697739.547             3410274.683    0.02507
              697697.551             3410284.389    0.0258
              697700.703             3410281.723    0.0258
              697703.785             3410279.105    0.0258
              697706.806             3410276.521    0.02507
              697709.774             3410273.957    0.02507
              697712.688             3410271.398    0.02507
              697715.539             3410268.837    0.02507
               697718.31             3410266.268    0.02507
              697720.985             3410263.681    0.02507
              697723.537             3410261.063    0.02507
              697689.585               3410273.9    0.02507
              697692.903             3410271.566    0.02507
               697696.16             3410269.278    0.02507
              697699.364             3410267.029    0.02507
              697702.509             3410264.814    0.02507
              697705.589             3410262.632    0.02507
              697708.588              3410260.48    0.02507
              697711.484             3410258.365    0.02507
              697714.248             3410256.294    0.02507
              697716.865             3410254.263    0.02507
              697682.513             3410263.039    0.02507
              697686.075             3410260.935    0.02507
              697689.586             3410258.922    0.02507
              697693.038             3410256.987    0.02507
              697696.425             3410255.123    0.02507
              697699.742             3410253.322    0.02507
              697702.977             3410251.585    0.02507
              697706.116             3410249.911    0.02507
              697709.146             3410248.303    0.02507
              697712.067             3410246.768    0.02507
              697676.039              3410251.26    0.02507
              697680.012             3410249.402    0.02507
                697683.9             3410247.665    0.02507
                697687.7             3410246.037    0.02507
              697691.412             3410244.509    0.02507
              697695.034             3410243.074    0.02507
              697698.562              3410241.73    0.02507
               697701.99             3410240.475    0.02507
              697705.308             3410239.316    0.02507
              697708.517             3410238.245    0.02507
              697670.549               3410237.9    0.02507
              697674.921             3410236.441    0.02507
              697679.185             3410235.069    0.02507
              697683.335             3410233.787    0.02507
              697687.379             3410232.593    0.02507
              697691.324             3410231.491    0.02507
              697695.177             3410230.484    0.02507
              697698.936             3410229.582    0.02507
              697702.592             3410228.801    0.02507
              697706.133             3410228.165    0.02507
              697666.547             3410223.039    0.02507
              697671.119             3410222.043    0.02507
              697675.589             3410221.066    0.02507
              697679.959             3410220.122    0.02507
              697684.248             3410219.218    0.02507
              697688.473             3410218.359    0.02507
              697692.651             3410217.552    0.02507
              697696.809             3410216.808    0.02507
              697700.975             3410216.123    0.02507
              697705.178             3410215.526    0.02507
              697663.948             3410207.204    0.02507
               697668.47             3410206.555    0.02507
              697672.925             3410205.879    0.02507
              697677.314             3410205.194    0.02507
              697681.646             3410204.506    0.02507
              697685.923             3410203.818    0.02507
              697690.156             3410203.132    0.02507
              697694.349             3410202.445    0.02507
              697698.506             3410201.749    0.02507
              697702.614             3410201.039    0.02507
              697662.072              3410190.84    0.02507
              697666.473             3410190.355    0.02507
              697670.832              3410189.85    0.02507
              697675.148              3410189.33    0.02507
              697679.412             3410188.801    0.02507
              697683.627             3410188.264    0.02507
              697687.782              3410187.72    0.02507
              697691.876             3410187.169    0.02507
              697695.907             3410186.608    0.02507
              697699.864             3410186.042    0.02507
               697660.41             3410174.148    0.02507
              697664.769             3410173.743    0.02507
              697669.091             3410173.335    0.02507
              697673.378             3410172.929    0.02507
              697677.626             3410172.525    0.02507
              697681.827             3410172.126    0.02507
              697685.985             3410171.734    0.02507
              697690.095             3410171.351    0.02507
               697694.17             3410170.978    0.02507
              697698.214             3410170.616    0.02507
              697658.965             3410157.186    0.02507
              697663.334             3410156.841    0.02507
              697667.682             3410156.506    0.02507
              697672.002             3410156.182    0.02507
              697676.289             3410155.873    0.02507
              697680.541             3410155.582    0.02507
              697684.752             3410155.314    0.02507
              697688.918             3410155.072    0.02507
              697693.039             3410154.861    0.02507
              697697.109             3410154.683    0.02507
               697657.72             3410140.116    0.02487
              697662.131             3410139.799    0.02487
              697666.528             3410139.495    0.02487
              697670.915             3410139.209    0.02487
              697675.291             3410138.943    0.02487
               697679.65             3410138.702    0.02487
              697683.998             3410138.492    0.02487
               697688.33             3410138.316    0.02487
              697692.652              3410138.18    0.02487
              697696.981             3410138.089    0.02487
              697656.479             3410123.046    0.02487
               697660.94             3410122.713    0.02487
              697665.405             3410122.398    0.02487
              697669.871             3410122.102    0.02487
              697674.334             3410121.824    0.02487
              697678.796             3410121.568    0.02487
              697683.255             3410121.335    0.02487
              697687.718             3410121.124    0.02487
              697692.189             3410120.939    0.02487
              697696.665              3410120.78    0.02487
              697655.143             3410106.097    0.02487
              697659.664             3410105.722    0.02487
              697664.191             3410105.366    0.02487
               697668.72             3410105.027    0.02487
              697673.247             3410104.704    0.02487
               697677.77             3410104.397    0.02487
              697682.288             3410104.104    0.02487
              697686.806             3410103.823    0.02487
              697691.327             3410103.552    0.02487
              697695.853             3410103.289    0.02487
              697653.632             3410089.543    0.02487
               697658.22             3410089.118    0.02487
              697662.811              3410088.71    0.02487
              697667.395             3410088.314    0.02487
              697671.968              3410087.93    0.02487
              697676.527             3410087.556    0.02487
              697681.076             3410087.192    0.02487
              697685.612             3410086.836    0.02487
              697690.146             3410086.488    0.02487
              697694.682             3410086.148    0.02487
              697652.094             3410073.501    0.02487
              697656.704             3410073.054    0.02487
              697661.314             3410072.597    0.02487
              697665.914             3410072.135    0.02487
              697670.502             3410071.673    0.02487
              697675.077             3410071.213    0.02487
              697679.642             3410070.756    0.02487
              697684.207             3410070.303    0.02487
              697688.777             3410069.857    0.02487
              697693.366             3410069.417    0.02487
              697650.621             3410058.124    0.02487
              697655.136             3410057.601    0.02487
              697659.668             3410057.053    0.02487
              697664.211             3410056.489    0.02487
              697668.758             3410055.916    0.02487
              697673.307             3410055.338    0.02487
              697677.856              3410054.76    0.02487
               697682.41             3410054.183    0.02487
              697686.974             3410053.609    0.02487
              697691.556             3410053.038    0.02487
              697648.716             3410043.357    0.02463
              697653.133             3410042.655    0.02463
              697657.586              3410041.94    0.02463
              697662.069             3410041.219    0.02463
              697666.576             3410040.493    0.02463
              697671.098             3410039.768    0.02463
              697675.633             3410039.047    0.02463
              697680.183             3410038.333    0.02463
              697684.751             3410037.626    0.02463
               697689.34              3410036.93    0.02463
              697645.942             3410028.672    0.02463
              697650.365             3410027.753    0.02463
              697654.819             3410026.846    0.02463
              697659.302             3410025.945    0.02463
              697663.808              3410025.05    0.02463
              697668.338             3410024.163    0.02463
               697672.89             3410023.284    0.02463
              697677.466             3410022.416    0.02463
              697682.068             3410021.559    0.02463
                697686.7             3410020.716    0.02463
              697642.461             3410013.476    0.02463
              697646.908             3410012.411    0.02463
              697651.381              3410011.35    0.02463
               697655.88             3410010.298    0.02463
              697660.406             3410009.254    0.02463
              697664.957             3410008.218    0.02463
              697669.535             3410007.191    0.02463
              697674.138             3410006.172    0.02463
              697678.772             3410005.159    0.02463
              697683.433             3410004.151    0.02463
              697638.442             3409997.673    0.02463
              697642.889             3409996.478    0.02463
              697647.376               3409995.3    0.02463
              697651.896             3409994.133    0.02463
              697656.446             3409992.979    0.02463
               697661.02             3409991.837    0.02463
              697665.613             3409990.708    0.02463
              697670.227             3409989.586    0.02463
              697674.856             3409988.468    0.02463
              697679.503             3409987.348    0.02463
              697633.777             3409981.426    0.02463
              697638.323             3409980.111    0.02463
              697642.894             3409978.829    0.02463
               697647.49             3409977.574    0.02463
              697652.104             3409976.348    0.02463
              697656.737             3409975.149    0.02463
              697661.388              3409973.97    0.02463
              697666.031             3409972.813    0.02463
              697670.671             3409971.677    0.02463
              697675.312             3409970.552    0.02463
              697628.847             3409964.974    0.02463
              697633.508             3409963.569    0.02463
              697638.202             3409962.204    0.02463
               697642.92             3409960.881    0.02463
              697647.663             3409959.598    0.02413
              697652.421             3409958.358    0.02413
              697657.169             3409957.164    0.02413
              697661.918             3409956.022    0.02413
               697666.66             3409954.933    0.02413
              697671.397             3409953.899    0.02413
               697623.76             3409948.727    0.02413
              697628.588             3409947.218    0.02413
              697633.446              3409945.76    0.02413
              697638.332              3409944.35    0.02413
              697643.243             3409942.992    0.02413
              697648.181              3409941.69    0.02413
              697653.151             3409940.448    0.02413
              697658.149             3409939.278    0.02413
              697663.172              3409938.19    0.02413
               697668.22             3409937.198    0.02413
              697618.634             3409932.825    0.02413
              697623.618              3409931.22    0.02413
              697628.635              3409929.66    0.02413
              697633.691              3409928.14    0.02413
               697638.79             3409926.664    0.02413
              697643.939             3409925.234    0.02413
              697649.145             3409923.859    0.02413
              697654.419             3409922.546    0.02413
              697659.769             3409921.313    0.02413
              697665.188             3409920.183    0.02413
              697613.448             3409917.165    0.02413
              697618.562             3409915.502    0.02413
              697623.705             3409913.856    0.02413
              697628.878             3409912.229    0.02413
              697634.095             3409910.616    0.02413
              697639.373             3409909.013    0.02413
               697644.73             3409907.421    0.02413
              697650.189             3409905.836    0.02413
              697655.775             3409904.261    0.02413
              697661.482             3409902.706    0.02413
              697608.386             3409901.527    0.02413
              697613.517             3409899.863    0.02413
              697618.659             3409898.173    0.02413
              697623.822             3409896.465    0.02413
              697629.021             3409894.734    0.02413
              697634.265             3409892.977    0.02413
              697639.569             3409891.183    0.02413
              697644.945             3409889.342    0.02413
              697650.409             3409887.437    0.02413
              697655.944             3409885.454    0.02413
              697603.369             3409885.956    0.02413
              697608.356              3409884.24    0.02413
              697613.373             3409882.493    0.02413
              697618.419             3409880.709    0.02413
               697623.49             3409878.889    0.02413
              697628.584             3409877.024    0.02413
              697633.699             3409875.108    0.02413
              697638.835             3409873.128    0.02413
              697643.982             3409871.073    0.02413
              697649.128             3409868.936    0.0238
              697597.781             3409870.441    0.02377
              697602.704             3409868.616    0.02377
              697607.633             3409866.776    0.02377
              697612.567             3409864.915    0.0238
              697617.502             3409863.025    0.0238
              697622.431             3409861.099    0.0238
              697627.351             3409859.129    0.0238
              697632.261             3409857.104    0.0238
              697637.172             3409855.007    0.0238
               697642.08             3409852.829    0.0238
              697591.785             3409854.673    0.02377
              697596.637             3409852.784    0.02377
              697601.489             3409850.886    0.02377
              697606.329             3409848.981    0.02377
              697611.145             3409847.067    0.0238
              697615.933             3409845.135    0.0238
              697620.685             3409843.177    0.0238
              697625.396             3409841.189    0.0238
              697630.058             3409839.156    0.0238
              697634.676             3409837.063    0.0238
              697585.393             3409838.633    0.02377
              697590.221             3409836.689    0.02377
              697595.045             3409834.758    0.02377
              697599.853             3409832.834    0.02377
              697604.624             3409830.922    0.02377
              697609.331             3409829.026    0.0238
              697613.977             3409827.136    0.0238
              697618.553              3409825.25    0.0238
              697623.061             3409823.362    0.0238
              697627.509             3409821.463    0.0238
              697578.737             3409822.363    0.02377
              697583.621             3409820.381    0.02377
              697588.487             3409818.429    0.02377
              697593.314             3409816.508    0.02377
               697598.09             3409814.619    0.02377
              697602.809             3409812.759    0.02377
              697607.463             3409810.931    0.02377
              697612.056             3409809.129    0.0238
              697616.593             3409807.353    0.0238
              697621.095             3409805.594    0.0238
              697572.042             3409805.918    0.02377
              697577.007             3409803.931    0.02377
              697581.949             3409801.978    0.02377
              697586.849             3409800.065    0.02377
              697591.697             3409798.194    0.02377
              697596.481             3409796.369    0.02377
              697601.203             3409794.588    0.02377
              697605.865              3409792.85    0.02377
              697610.475             3409791.153    0.0238
              697615.053             3409789.489    0.0238
              697565.447             3409789.377    0.02377
              697570.508             3409787.404    0.02377
              697575.539             3409785.464    0.02377
              697580.528              3409783.56    0.02377
              697585.466             3409781.697    0.02377
              697590.347             3409779.877    0.02377
              697595.168             3409778.105    0.02343
              697599.939             3409776.385    0.02343
              697604.663              3409774.72    0.02343
              697609.354             3409773.117    0.02343
              697559.052             3409772.783    0.02343
              697564.186             3409770.853    0.02343
              697569.285             3409768.941    0.02343
              697574.337             3409767.051    0.02343
              697579.332             3409765.189    0.02343
              697584.281             3409763.349    0.02343
              697589.199              3409761.53    0.02343
              697594.098             3409759.733    0.02343
              697598.999             3409757.956    0.02343
              697603.916             3409756.202    0.02343
              697552.956             3409756.165    0.02343
              697558.085             3409754.304    0.02343
              697563.178              3409752.44    0.02343
              697568.221             3409750.581    0.02343
              697573.205             3409748.732    0.02343
              697578.131             3409746.894    0.02343
              697583.016             3409745.055    0.02343
              697587.862             3409743.207    0.02343
              697592.684             3409741.336    0.02343
              697597.486             3409739.426    0.02343
              697547.058               3409739.6    0.02343
              697552.138             3409737.786    0.02343
              697557.178             3409735.971    0.02343
               697562.17             3409734.159    0.02343
              697567.105             3409732.352    0.02343
               697571.97             3409730.555    0.02343
              697576.756             3409728.768    0.02343
              697581.462             3409726.987    0.02343
              697586.085             3409725.206    0.02343
              697590.625             3409723.421    0.02343
              697541.189             3409723.107    0.02343
              697546.248              3409721.32    0.02343
              697551.273             3409719.543    0.02343
              697556.249              3409717.78    0.02343
              697561.164             3409716.034    0.02343
              697566.009             3409714.307    0.02343
              697570.785             3409712.599    0.02343
              697575.492             3409710.908    0.02343
              697580.146             3409709.229    0.02343
              697584.763              3409707.56    0.02343
              697535.403             3409706.569    0.02343
              697540.482             3409704.818    0.02343
              697545.528             3409703.086    0.02343
               697550.53              3409701.38    0.02343
              697555.475             3409699.705    0.02343
              697560.354             3409698.065    0.02343
              697565.163             3409696.462    0.02343
              697569.902             3409694.893    0.02343
              697574.579             3409693.352    0.02343
              697579.205             3409691.825    0.02343
              697529.732             3409689.942    0.02343
              697534.856             3409688.204    0.0231
              697539.966               3409686.5    0.0231
              697545.046             3409684.836    0.0231
              697550.084             3409683.221    0.0231
              697555.069             3409681.664    0.0231
               697559.99             3409680.175    0.0231
              697564.839             3409678.761    0.0231
              697569.612             3409677.428    0.0231
              697574.319             3409676.175    0.0231
              697524.051             3409673.234    0.0231
              697529.292             3409671.484    0.0231
              697534.531             3409669.775    0.0231
              697539.768             3409668.109    0.0231
               697544.99               3409666.5    0.0231
              697550.201              3409664.96    0.0231
              697555.397             3409663.508    0.0231
              697560.587             3409662.162    0.0231
              697565.769             3409660.947    0.0231
               697570.95             3409659.888    0.0231
              697518.438             3409656.424    0.0231
              697523.808             3409654.673    0.0231
              697529.189              3409652.95    0.0231
              697534.568             3409651.252    0.0231
              697539.984             3409649.587    0.0231
              697545.447             3409647.966    0.0231
              697550.973             3409646.405    0.0231
              697556.574             3409644.927    0.0231
              697562.275              3409643.56    0.0231
              697568.055              3409642.35    0.0231
              697513.011             3409639.571    0.0231
              697518.434             3409637.849    0.0231
               697523.85             3409636.122    0.0231
              697529.309             3409634.379    0.0231
              697534.817             3409632.625    0.0231
              697540.397             3409630.856    0.0231
              697546.079             3409629.067    0.0231
              697551.895             3409627.257    0.0231
              697557.882             3409625.419    0.0231
              697564.026             3409623.565    0.0231
              697507.777             3409622.752    0.0231
              697513.117             3409621.078    0.0231
              697518.478             3409619.365    0.0231
              697523.855             3409617.611    0.0231
              697529.266             3409615.809    0.0231
              697534.719             3409613.949    0.0231
              697540.224             3409612.017    0.0231
              697545.792             3409609.994    0.0231
              697551.422             3409607.852    0.0231
               697557.08             3409605.565    0.0231
              697502.577             3409605.994    0.02243
              697507.807             3409604.352    0.02243
              697513.031             3409602.662    0.0231
              697518.258             3409600.925    0.0231
               697523.49             3409599.137    0.0231
              697528.732              3409597.29    0.02233
              697533.982             3409595.377    0.02233
              697539.218             3409593.388    0.02233
              697544.421             3409591.315    0.02233
               697549.56             3409589.149    0.02233
              697497.375             3409589.295    0.02243
              697502.446             3409587.665    0.02243
              697507.521             3409585.993    0.02243
              697512.602              3409584.28    0.02243
              697517.694             3409582.526    0.02233
               697522.78             3409580.737    0.02233
               697527.85             3409578.909    0.02233
              697532.905             3409577.037    0.02233
              697537.939             3409575.123    0.02233
              697543.037             3409573.097    0.02233
              697491.995             3409572.678    0.02243
              697496.959             3409571.021    0.02243
              697501.932              3409569.34    0.02243
              697506.919             3409567.635    0.02243
              697511.912             3409565.903    0.02243
               697516.92             3409564.147    0.02243
              697521.919             3409562.373    0.02233
              697526.905             3409560.582    0.02233
              697531.884             3409558.775    0.02233
              697536.907             3409556.951    0.02233
              697486.346             3409556.115    0.02243
              697491.273             3409554.409    0.02243
              697496.207             3409552.693    0.02243
              697501.149             3409550.964    0.02243
              697506.099             3409549.219    0.02243
              697511.049             3409547.461    0.02243
              697516.004             3409545.684    0.02243
              697520.965             3409543.894    0.02233
              697525.926             3409542.095    0.02233
              697530.881             3409540.299    0.02233
              697480.574             3409539.604    0.02243
              697485.456             3409537.861    0.02243
              697490.343             3409536.105    0.02243
              697495.237             3409534.337    0.02243
              697500.132             3409532.556    0.02243
              697505.025             3409530.755    0.02243
              697509.915             3409528.929    0.02243
              697514.812             3409527.065    0.02243
              697519.728             3409525.151    0.02233
              697524.661             3409523.183    0.02233
              697474.631             3409523.267    0.02243
              697479.461             3409521.448    0.02243
              697484.299             3409519.636    0.02243
              697489.134              3409517.83    0.02243
              697493.942             3409516.028    0.02243
              697498.719             3409514.222    0.02243
              697503.454               3409512.4    0.02243
              697508.137             3409510.555    0.02243
              697512.761             3409508.667    0.02243
              697517.327             3409506.713    0.0219
               697468.32             3409507.125    0.02203
              697473.187             3409505.187    0.02203
              697478.052             3409503.293    0.02203
              697482.905             3409501.443    0.02203
              697487.713             3409499.627    0.02203
              697492.442             3409497.858    0.02203
              697497.086             3409496.119    0.02203
              697501.634             3409494.402    0.02203
               697506.08             3409492.699    0.02203
              697510.435             3409490.998    0.02203
              697461.658             3409491.094    0.02203
              697466.674             3409489.008    0.02203
              697471.701             3409487.013    0.02203
              697476.694             3409485.102    0.02203
              697481.616             3409483.285    0.02203
              697486.458             3409481.553    0.02203
              697491.201             3409479.901    0.02203
              697495.847              3409478.32    0.02203
              697500.407             3409476.798    0.02203
              697504.907             3409475.319    0.02203
              697454.692             3409475.014    0.02203
              697460.011             3409472.774    0.02203
              697465.321             3409470.666    0.02203
              697470.586             3409468.687    0.02203
              697475.777              3409466.84    0.02203
               697480.87             3409465.124    0.02203
               697485.85             3409463.536    0.02203
              697490.717             3409462.071    0.02203
               697495.47             3409460.722    0.02203
              697500.141              3409459.48    0.02203
              697447.706             3409458.783    0.02203
              697453.379              3409456.44    0.02203
               697459.04             3409454.235    0.02203
              697464.651             3409452.173    0.02203
              697470.189             3409450.262    0.02203
              697475.637             3409448.505    0.02203
              697480.993             3409446.904    0.02203
              697486.262             3409445.458    0.02203
              697491.467             3409444.168    0.02203
               697496.64             3409443.035    0.02203
               697440.97             3409442.611    0.02203
              697446.955             3409440.186    0.02203
              697452.929             3409437.884    0.02203
              697458.866             3409435.717    0.02203
              697464.747             3409433.696    0.02203
              697470.564              3409431.83    0.02203
              697476.317             3409430.123    0.02203
              697482.019             3409428.579    0.02203
              697487.697             3409427.201    0.02203
              697493.381             3409425.991    0.02203
              697434.457             3409426.757    0.02203
              697440.682             3409424.231    0.02203
              697446.909             3409421.807    0.02203
