              707737.252              3404808.77    3.97633
              707691.937             3404787.639    3.92077
              707525.943             3405261.924    3.9369
              707480.628             3405240.793    3.8599
              707543.318             3405283.818    3.9369
              707855.824             3404850.268    4.11653
              707827.883             3404851.032    4.11653
              707782.568             3404829.901    4.11653
              707616.574             3405304.186    4.1112
              707571.259             3405283.055    4.1112
              707633.949              3405326.08    4.1112
              707946.454              3404892.53    4.26593
              707918.514             3404893.294    4.1665
              707873.198             3404872.163    4.11653
              707707.205             3405346.447    4.2785
              707661.889             3405325.317    4.2575
               707724.58             3405368.342    4.2785
              708037.085             3404934.792    4.32437
              708009.145             3404935.555    4.26593
              707963.829             3404914.424    4.26593
              707797.836             3405388.709    4.3862
               707752.52             3405367.578    4.3862
               707815.21             3405410.604    4.3862
              708127.716             3404977.054    4.33983
              708099.775             3404977.817    4.32437
               708054.46             3404956.686    4.32437
              707888.466             3405430.971    4.4572
              707843.151              3405409.84    4.4572
              707905.841             3405452.865    4.464
              708218.347             3405019.316    4.36853
              708190.406             3405020.079    4.40473
              708145.091             3404998.948    4.40473
              708031.924             3405359.944    4.48923
              708033.451             3405415.825    4.48923
              707933.782             3405452.102    4.464
               708314.26             3405050.249    4.2871
              708299.664             3405061.832    4.2871
              708281.037             3405062.341    4.36853
              708235.722              3405041.21    4.36853
               708111.99             3405424.864    4.48053
              708066.674             3405403.733    4.48923
              708129.365             3405446.758    4.48093
              708048.047             3405404.242    4.48923
               708441.87             3405013.208    4.2871
               708413.93             3405013.972    4.2871
              708315.787             3405106.129    4.30577
               708202.62             3405467.126    4.42803
              708157.305             3405445.995    4.48093
              708219.995              3405489.02    4.42803
              708532.501              3405055.47    4.16
               708504.56             3405056.234    4.16
              708459.245             3405035.103    4.2871
              708293.251             3405509.388    4.33277
              708247.936             3405488.257    4.42803
              708310.626             3405531.282    4.32537
              708623.132             3405097.732    4.00107
              708595.191             3405098.496    4.00107
              708549.876             3405077.365    4.1757
              708383.882             3405551.649    4.1868
              708338.567             3405530.519    4.32537
              708401.257             3405573.544    4.1868
              708713.762             3405139.994    3.7854
              708685.822             3405140.757    3.7854
              708640.507             3405119.626    4.00107
              708569.602             3405389.992    4.0183
              708571.129             3405445.873    4.0143
              708549.998             3405491.188    4.19447
              708528.867             3405536.504    4.1868
              708429.197              3405572.78    4.1868
              708809.676             3405170.927    3.5415
               708795.08              3405182.51    3.5415
              708776.453             3405183.019    3.5415
              708731.137             3405161.888    3.7929
              708649.667             3405454.912    4.0143
              708604.352             3405433.781    4.0143
              708667.042             3405476.806    3.7958
              708550.761             3405519.129    4.19447
              708585.725              3405434.29    4.0143
              708942.568             3405122.558    3.26243
              708927.972             3405134.141    3.26243
              708909.345              3405134.65    3.26243
              708811.203             3405226.808    3.5415
              708740.298             3405497.173    3.7958
              708694.983             3405476.042    3.7958
              708757.673             3405519.068    3.54603
              709159.985             3404892.927    2.6962
               709138.09             3404910.302    2.6962
              709138.854             3404938.243    2.6962
              709117.723             3404983.558    2.6972
              709095.829             3405000.933    2.9717
              709096.592             3405028.874    2.9717
              709075.461             3405074.189    2.97943
              709060.865             3405085.772    2.97943
              709042.238             3405086.281    2.97943
              708944.095             3405178.439    3.267
              708830.929             3405539.435    3.54263
              708785.613             3405518.304    3.54603
              708848.304             3405561.329    3.27453
              709076.988              3405130.07    2.97943
              708974.387             3405468.409    3.2751
              708975.914             3405524.289    3.27453
              708876.244             3405560.566    3.27453
              709054.452             3405533.328    2.99853
              709009.137             3405512.197    3.2751
              709071.827             3405555.222    2.99853
               708990.51             3405512.706    3.2751
               709197.91             3405462.301    2.4661
              709199.437             3405518.182    2.4661
              709099.768             3405554.459    2.99853
              709330.803             3405413.932    2.22053
               709332.33             3405469.813    2.23663
               709232.66              3405506.09    2.4661
              709214.033             3405506.599    2.4661
              709410.868             3405478.852    2.03893
              709365.553             3405457.721    2.23663
              709428.243             3405500.746    2.03893
              709346.926              3405458.23    2.23663
              709554.326             3405407.825    2.02113
              709555.853             3405463.706    2.03893
              709456.184             3405499.983    2.03893
              709958.165             3404837.566    1.5443
              709930.224             3404838.329    1.5443
              709634.392             3405472.745    1.87433
              709589.076             3405451.614    1.87433
              709651.767             3405494.639    1.7416
              709570.449             3405452.123    1.87433
              710054.078             3404868.499    1.48727
              710039.482             3404880.082    1.48727
              710020.855             3404880.591    1.48727
               709975.54              3404859.46    1.5443
               709777.85             3405401.718    1.6195
              709779.376             3405457.599    1.63747
              709679.707             3405493.876    1.7416
              710181.688             3404831.459    1.44767
              710153.748             3404832.222    1.44767
              710055.605              3404924.38    1.48107
              709910.742             3405353.349    1.54127
              709912.269              3405409.23    1.54127
                709812.6             3405445.507    1.63747
              709793.973             3405446.016    1.63747
              710277.602             3404862.392    1.42243
              710263.005             3404873.975    1.42243
              710244.378             3404874.484    1.42243
              710199.063             3404853.353    1.42243
              709990.808             3405418.269    1.54127
              709945.492             3405397.138    1.54127
              710008.183             3405440.163    1.55827
              709926.865             3405397.647    1.54127
              710405.212             3404825.352    1.40873
              710377.271             3404826.115    1.40873
              710279.128             3404918.273    1.41733
              710176.527             3405256.611    1.44023
              710178.054             3405312.492    1.44023
              710156.923             3405357.808    1.44503
              710135.792             3405403.123    1.44503
              710036.123               3405439.4    1.50023
              710543.387             3404765.654    1.41553
              710521.493             3404783.029    1.41553
              710522.256             3404810.969    1.40903
              710501.125             3404856.285    1.40903
              710486.529             3404867.868    1.40903
              710467.902             3404868.377    1.40903
              710422.586             3404847.246    1.40873
              710256.593             3405321.531    1.41573
              710211.277               3405300.4    1.41573
              710273.968             3405343.425    1.42003
              710157.687             3405385.748    1.44503
               710192.65             3405300.909    1.41573
              710670.997             3404728.614    1.41913
              710643.056             3404729.377    1.41533
              710502.652             3404912.166    1.39973
              710400.051             3405250.504    1.4002
              710401.578             3405306.385    1.39823
              710301.908             3405342.662    1.4065
               710766.91             3404759.547    1.42483
              710752.314              3404771.13    1.42483
              710733.687             3404771.639    1.41913
              710688.372             3404750.508    1.41913
              710480.116             3405315.424    1.39823
              710434.801             3405294.293    1.39823
              710497.491             3405337.318    1.39823
              710416.174             3405294.802    1.39823
               710894.52             3404722.507    1.43077
               710866.58              3404723.27    1.43077
              710768.437             3404815.428    1.42067
              710570.747             3405357.686    1.40263
              710525.432             3405336.555    1.39823
              710588.122              3405379.58    1.40263
              710985.151             3404764.769    1.43077
               710957.21             3404765.532    1.43077
              710911.895             3404744.401    1.43077
              710756.467             3405196.028    1.4111
              710757.994             3405251.909    1.4119
              710736.863             3405297.224    1.4119
              710715.732              3405342.54    1.4073
              710616.062             3405378.816    1.40263
              711075.782              3404807.03    1.432
              711047.841             3404807.794    1.432
              711002.526             3404786.663    1.43077
              710836.532             3405260.948    1.418
              710791.217             3405239.817    1.4111
              710853.907             3405282.842    1.418
              710737.626             3405325.165    1.4119
               710772.59             3405240.326    1.4111
              711166.412             3404849.292    1.4345
              711138.472             3404850.056    1.4345
              711093.157             3404828.925    1.432
              710927.163             3405303.209    1.418
              710881.848             3405282.079    1.418
              710944.538             3405325.104    1.418
              711257.043             3404891.554    1.4287
              711229.103             3404892.317    1.4287
              711183.787             3404871.187    1.4345
              711017.794             3405345.471    1.42233
              710972.478              3405324.34    1.418
              711035.169             3405367.366    1.42233
              711347.674             3404933.816    1.42463
              711319.734             3404934.579    1.42463
              711274.418             3404913.448    1.4287
              711108.424             3405387.733    1.42287
              711063.109             3405366.602    1.42233
              711125.799             3405409.627    1.42287
              711438.305             3404976.078    1.42463
              711410.364             3404976.841    1.42463
              711365.049              3404955.71    1.42463
              711199.055             3405429.995    1.42003
               711153.74             3405408.864    1.42287
               711216.43             3405451.889    1.4197
              711528.936              3405018.34    1.4146
              711500.995             3405019.103    1.4146
               711455.68             3404997.972    1.4221
              711289.686             3405472.257    1.413
              711244.371             3405451.126    1.4197
              711307.061             3405494.151    1.413
              711619.566             3405060.601    1.4044
              711591.626             3405061.365    1.4044
              711546.311             3405040.234    1.4146
              711380.317             3405514.519    1.4033
              711335.001             3405493.388    1.413
              711397.692             3405536.413    1.4028
              711710.197             3405102.863    1.389
              711682.257             3405103.627    1.389
              711636.941             3405082.496    1.40133
              711470.948              3405556.78    1.4028
              711425.632              3405535.65    1.4028
              711488.323             3405578.675    1.4028
              711800.828             3405145.125    1.3759
              711772.887             3405145.888    1.3759
              711727.572             3405124.757    1.389
              711561.578             3405599.042    1.39057
              711516.263             3405577.911    1.4028
              711578.953             3405620.937    1.39083
              711891.459             3405187.387    1.3596
              711863.518              3405188.15    1.3596
              711818.203             3405167.019    1.3725
              711652.209             3405641.304    1.3776
              711606.894             3405620.173    1.39083
              711669.584             3405663.198    1.3776
              711982.089             3405229.649    1.3596
              711954.149             3405230.412    1.3596
              711908.834             3405209.281    1.3596
               711742.84             3405683.566    1.3646
              711697.525             3405662.435    1.3776
              711760.215              3405705.46    1.36623
               712072.72              3405271.91    1.3452
               712044.78             3405272.674    1.3452
              711999.464             3405251.543    1.35653
              711833.471             3405725.828    1.3549
              711788.155             3405704.697    1.36623
              711850.846             3405747.722    1.3549
              712168.634             3405302.843    1.33633
              712154.038             3405314.427    1.33633
              712135.411             3405314.936    1.33633
              712090.095             3405293.805    1.3452
              711924.101              3405768.09    1.34593
              711878.786             3405746.959    1.3549
              711941.476             3405789.984    1.34593
              712170.161             3405358.724    1.3329
              712014.732             3405810.351    1.34963
              711969.417              3405789.22    1.34593
              712032.107             3405832.246    1.34963
              712105.363             3405852.613    1.34443
              712060.048             3405831.482    1.34963
              712122.738             3405874.508    1.34443
              712562.029             3405169.065    1.33457
              712534.088             3405169.829    1.33107
              712195.994             3405894.875    1.34883
              712150.678             3405873.744    1.34443
              712213.369             3405916.769    1.34883
               712652.66             3405211.327    1.3407
              712624.719             3405212.091    1.33457
              712579.404              3405190.96    1.33457
              712286.625             3405937.137    1.35153
              712241.309             3405916.006    1.34883
                  712304             3405959.031    1.35153
              712748.573              3405242.26    1.34807
              712733.977             3405253.844    1.34807
               712715.35             3405254.352    1.3394
              712670.035             3405233.222    1.3407
              712514.606             3405684.849    1.33393
              712516.133              3405740.73    1.34353
              712495.002             3405786.045    1.34353
              712473.871              3405831.36    1.35003
               712452.74             3405876.676    1.35003
              712431.609             3405921.991    1.35767
               712331.94             3405958.268    1.35153
              712876.183              3405205.22    1.3594
              712848.243             3405205.984    1.3594
                712750.1             3405298.141    1.34807
              712594.672             3405749.768    1.35133
              712549.356             3405728.637    1.35133
              712612.047             3405771.662    1.35133
              712495.766             3405813.985    1.35003
              712530.729             3405729.146    1.34353
              712453.504             3405904.616    1.35767
              712966.814             3405247.482    1.3594
              712938.873             3405248.245    1.3594
              712893.558             3405227.114    1.3594
              712685.302              3405792.03    1.36167
              712639.987             3405770.899    1.36167
              712702.677             3405813.924    1.36957
              713057.445             3405289.744    1.371
              713029.504             3405290.507    1.371
              712984.189             3405269.376    1.3587
              712775.933             3405834.292    1.38263
              712730.618             3405813.161    1.38263
              712793.308             3405856.186    1.38263
              713148.075             3405332.006    1.38543
              713120.135             3405332.769    1.38543
               713074.82             3405311.638    1.371
              712919.391             3405763.265    1.4035
              712920.918             3405819.146    1.41357
              712821.249             3405855.423    1.39737
              713238.706             3405374.267    1.4033
              713210.766             3405375.031    1.4033
               713165.45               3405353.9    1.3863
              712999.457             3405828.185    1.41357
              712954.141             3405807.054    1.41357
              713016.832             3405850.079    1.41357
              712935.514             3405807.563    1.41357
              713329.337             3405416.529    1.42353
              713301.396             3405417.293    1.42353
              713256.081             3405396.162    1.4033
              713090.087             3405870.447    1.43147
              713044.772             3405849.316    1.41357
              713107.462             3405892.341    1.4436
              713419.968             3405458.791    1.45493
              713392.027             3405459.554    1.45493
              713346.712             3405438.424    1.43033
              713180.718             3405912.708    1.4644
              713135.403             3405891.577    1.4436
              713198.093             3405934.603    1.4644
              713510.598             3405501.053    1.45493
              713482.658             3405501.816    1.45493
              713437.343             3405480.685    1.45493
              713271.349              3405954.97    1.4879
              713226.034             3405933.839    1.4644
              713282.932             3405969.566    1.4879
              713283.441             3405988.193    1.5025
              713601.229             3405543.315    1.49067
              713573.289             3405544.078    1.49067
              713527.973             3405522.947    1.45493
               713327.23             3405953.443    1.4879
              713319.718             3406087.863    1.5352
              713337.093             3406109.757    1.5352
               713691.86             3405585.577    1.52607
               713663.92              3405586.34    1.52607
              713618.604             3405565.209    1.49067
              713410.349             3406130.125    1.56333
              713365.033             3406108.994    1.56333
              713421.932             3406144.721    1.56333
              713422.441             3406163.348    1.58133
               713401.31             3406208.663    1.58133
              713379.416             3406226.038    1.58133
              713380.179             3406253.979    1.5999
              713709.235             3405607.471    1.52607
              713745.512              3405707.14    1.5862
              713701.723              3405741.89    1.54397
              713466.229             3406128.598    1.59513
              713416.456             3406353.648    1.61893
              713433.831             3406375.542    1.61893
               713830.86             3405760.731    1.63563
              713802.919             3405761.494    1.5862
              713757.604             3405740.363    1.5862
              713746.021             3405725.767    1.5862
              713507.087              3406395.91    1.65063
              713461.771             3406374.779    1.65063
               713518.67             3406410.506    1.65063
              713519.179             3406429.133    1.68873
              713498.048             3406474.448    1.68873
              713476.154             3406491.823    1.68873
              713476.917             3406519.764    1.70773
              713455.786             3406565.079    1.70773
              713433.892             3406582.454    1.67673
              713434.655             3406610.395    1.69593
              713413.524              3406655.71    1.69593
               713391.63             3406673.085    1.69593
              713392.393             3406701.025    1.71483
              713848.235             3405782.625    1.63563
              713884.511             3405882.295    1.6593
              713863.381              3405927.61    1.673
               713842.25             3405972.926    1.673
              713798.461             3406007.675    1.63947
              713562.967             3406394.383    1.65063
              713885.275             3405910.235    1.673
              713927.598             3406026.516    1.74343
              713899.657              3406027.28    1.6877
              713854.342             3406006.149    1.6877
              713842.759             3405991.552    1.6877
              713944.973             3406048.411    1.74343
              713981.249              3406148.08    1.7583
              713937.461              3406182.83    1.7896
              713993.342             3406181.303    1.7896
              713981.758             3406166.707    1.7896
              714029.618             3406280.973    1.8057
              714008.487             3406326.288    1.8057
              713987.356             3406371.603    1.8219
              713966.226             3406416.919    1.8219
              713945.095             3406462.234    1.8382
              713923.964              3406507.55    1.8382
              713902.833             3406552.865    1.8221
              713859.044             3406587.615    1.8221
              714030.382             3406308.913    1.8057
               713988.12             3406399.544    1.8219
              713945.858             3406490.175    1.8382
              713988.181             3406606.456    1.87063
               713960.24             3406607.219    1.87063
              713914.925             3406586.088    1.87063
              713903.342             3406571.492    1.8221
              714078.812             3406648.717    1.94163
              714050.871             3406649.481    1.94163
              714005.556              3406628.35    1.94163
              714169.442             3406690.979    1.94163
              714141.502             3406691.743    1.94163
              714096.187             3406670.612    1.94163
              714260.073             3406733.241    2.01917
              714232.133             3406734.004    2.01917
              714186.817             3406712.874    2.01917
              714350.704             3406775.503    2.0914
              714322.764             3406776.266    2.0914
              714277.448             3406755.135    2.0914
              714441.335             3406817.765    2.18753
              714413.394             3406818.528    2.18753
              714368.079             3406797.397    2.18753
              714531.966             3406860.027    2.28417
              714504.025              3406860.79    2.28417
               714458.71             3406839.659    2.28417
              714622.596             3406902.288    2.4212
              714594.656             3406903.052    2.4212
               714549.34             3406881.921    2.4212
              714713.227              3406944.55    2.4212
              714685.287             3406945.314    2.4212
              714639.971             3406924.183    2.4212
              714803.858             3406986.812    2.56823
              714775.917             3406987.575    2.56823
              714730.602             3406966.444    2.55483
              714894.489             3407029.074    2.72797
              714866.548             3407029.837    2.72797
              714821.233             3407008.706    2.72797
              714985.119             3407071.336    2.93503
              714957.179             3407072.099    2.93503
              714911.864             3407050.968    2.91833
               715075.75             3407113.597    3.16037
               715047.81             3407114.361    3.16037
              715002.494              3407093.23    3.16037
              715213.926               3407053.9    3.39963
              715192.031             3407071.275    3.41993
              715192.795             3407099.215    3.41993
              715171.664              3407144.53    3.41993
              715157.067             3407156.114    3.44203
              715138.441             3407156.623    3.44203
              715093.125             3407135.492    3.16037
              715431.342             3406824.269    3.9252
              715409.447             3406841.644    3.9252
              715410.211             3406869.585    3.9252
               715389.08               3406914.9    3.9485
              715367.186             3406932.275    3.9485
              715367.949             3406960.215    3.9485
              715346.818             3407005.531    3.6872
              715332.222             3407017.114    3.6872
              715313.595             3407017.623    3.6872
               715173.19             3407200.411    3.44203
              715558.952             3406787.229    4.51117
              715531.011             3406787.992    4.2077
              715348.345             3407061.412    3.6872
              715649.582             3406829.491    4.54193
              715621.642             3406830.254    4.54193
              715576.327             3406809.123    4.54193
              715740.213             3406871.753    4.83367
              715712.273             3406872.516    4.54193
              715666.957             3406851.385    4.54193
              715830.844             3406914.015    5.13263
              715802.904             3406914.778    4.86587
              715757.588             3406893.647    4.86587
              715921.475             3406956.276    5.36577
              715893.534              3406957.04    5.13263
              715848.219             3406935.909    5.13263
              716012.106             3406998.538    5.6168
              715984.165             3406999.302    5.4237
               715938.85             3406978.171    5.4237
              716102.736               3407040.8    5.6168
              716074.796             3407041.563    5.6168
              716029.481             3407020.433    5.6168
              716193.367             3407083.062    5.7945
              716165.427             3407083.825    5.7945
              716120.111             3407062.694    5.6168
              716283.998             3407125.324    5.9175
              716256.057             3407126.087    5.7945
              716210.742             3407104.956    5.7945
              716374.629             3407167.586    6.02737
              716346.688             3407168.349    5.93247
              716301.373             3407147.218    5.9175
              716465.259             3407209.847    6.10347
              716437.319             3407210.611    6.02737
              716392.004              3407189.48    6.02737
               716555.89             3407252.109    6.17367
               716527.95             3407252.873    6.11143
              716482.634             3407231.742    6.10347
              716646.521             3407294.371    6.17367
              716618.581             3407295.134    6.17367
              716573.265             3407274.003    6.17367
              716737.152             3407336.633    6.23443
              716709.211             3407337.396    6.17847
              716663.896             3407316.265    6.17367
              716827.783             3407378.895    6.29143
              716799.842             3407379.658    6.23443
              716754.527             3407358.527    6.23443
              716918.413             3407421.156    6.35497
              716890.473              3407421.92    6.29143
              716845.158             3407400.789    6.29143
              717009.044             3407463.418    6.43917
              716981.104             3407464.182    6.36193
              716935.788             3407443.051    6.36193
              717026.419             3407485.313    6.43917
              717062.696             3407584.982    6.44467
              717041.565             3407630.297    6.451
              717020.434             3407675.613    6.451
              716999.303             3407720.928    6.4583
              716978.172             3407766.244    6.38137
              716957.041             3407811.559    6.38837
               716935.91             3407856.874    6.38837
              716914.779              3407902.19    6.39663
              716893.648             3407947.505    6.39663
               716849.86             3407982.255    6.32717
              717063.459             3407612.922    6.451
              717021.197             3407703.553    6.4583
              716978.936             3407794.184    6.38837
              716936.674             3407884.815    6.39663
              716978.997             3408001.096    6.4062
              716951.056             3408001.859    6.4062
              716905.741             3407980.728    6.4062
              716894.157             3407966.132    6.39663
              717069.627             3408043.358    6.50017
              717041.687             3408044.121    6.50017
              716996.372              3408022.99    6.50017
              717087.002             3408065.252    6.6488
              717123.279             3408164.921    6.66907
              717102.148             3408210.237    6.66907
              717081.017             3408255.552    6.69067
              717037.229             3408290.302    6.5656
              717124.042             3408192.862    6.66907
              717166.365             3408309.143    6.8351
              717138.425             3408309.906    6.69067
              717093.109             3408288.775    6.69067
              717081.526             3408274.179    6.69067
              717256.996             3408351.405    6.8603
              717229.056             3408352.168    6.8603
               717183.74             3408331.037    6.8603
              717347.627             3408393.667    7.02417
              717319.686              3408394.43    6.8603
              717274.371             3408373.299    6.8603
              717438.258             3408435.928    7.25573
              717410.317             3408436.692    7.079
              717365.002             3408415.561    7.02417
              717528.888              3408478.19    7.4373
              717500.948             3408478.954    7.25573
              717455.633             3408457.823    7.25573
              717619.519             3408520.452    7.6394
              717591.579             3408521.215    7.46253
              717546.263             3408500.084    7.4373
               717710.15             3408562.714    7.80707
              717682.209             3408563.477    7.6394
              717636.894             3408542.346    7.6394
              717807.855             3408604.108    7.826
              717775.071             3408606.779    7.826
              717727.525             3408584.608    7.80707
              717952.121              3408545.86    7.96083
              717930.932             3408565.063    7.96083
              717932.077             3408591.914    7.96083
              717912.917             3408638.524    7.97687
              717901.289              3408649.06    7.97687
              717877.033              3408651.29    7.826
              717826.838             3408629.313    7.826
              697809.852             3406813.607    9.7448
              697777.773             3406867.609    9.73767
              697798.904             3406822.294    9.7448
              697778.155              3406881.58    9.73767
               697767.59             3406904.237    9.7483
              697735.512              3406958.24    9.7483
              697756.643             3406912.925    9.7483
              697735.893              3406972.21    9.7683
              697725.328             3406994.868    9.7683
               697693.25             3407048.871    9.76087
              697714.381             3407003.556    9.7683
              697693.632             3407062.841    9.7704
              697683.066             3407085.499    9.7704
              697650.988             3407139.502    9.7704
              697672.119             3407094.186    9.7704
               697651.37             3407153.472    9.77947
              697640.804              3407176.13    9.77947
              697608.726             3407230.133    9.77947
              697629.857             3407184.817    9.77947
              697609.108             3407244.103    9.78823
              697598.542             3407266.761    9.78037
              697566.464             3407320.763    9.78037
              697587.595             3407275.448    9.78037
              697566.846             3407334.734    9.7968
              697556.281             3407357.391    9.7968
              697524.203             3407411.394    9.7968
              697545.333             3407366.079    9.7968
              697524.584             3407425.364    9.80433
              697514.019             3407448.022    9.80433
              697481.941             3407502.025    9.80433
              697503.072              3407456.71    9.80433
              697482.322             3407515.995    9.81143
              697471.757             3407538.653    9.81143
              697439.679             3407592.656    9.81143
               697460.81              3407547.34    9.81143
              697440.061             3407606.626    9.8244
              697429.495             3407629.284    9.8244
              697397.417             3407683.287    9.8167
              697418.548             3407637.971    9.8167
              697397.799             3407697.257    9.8228
              697387.233             3407719.914    9.8228
              697355.155             3407773.917    9.8228
              697376.286             3407728.602    9.8228
              697355.537             3407787.887    9.82847
              699041.552             3404408.837    8.8844
              699009.474              3404462.84    8.9449
              699030.604             3404417.525    8.8844
              699009.855             3404476.811    8.9449
               698999.29             3404499.468    8.9449
              698967.212             3404553.471    9.05667
              698988.343             3404508.156    8.9449
              698967.593             3404567.441    9.05667
              698957.028             3404590.099    9.0736
               698924.95             3404644.102    9.12283
              698946.081             3404598.786    9.0736
              698925.332             3404658.072    9.12283
              698914.766              3404680.73    9.12283
              698882.688             3404734.733    9.16923
              698903.819             3404689.417    9.12283
               698883.07             3404748.703    9.16923
              698872.504             3404771.361    9.17747
              698840.426             3404825.363    9.2594
              698861.557             3404780.048    9.17747
              698840.808             3404839.334    9.2594
              698830.243             3404861.991    9.2594
              698798.164             3404915.994    9.29667
              698819.295             3404870.679    9.2594
              698798.546             3404929.964    9.29667
              698787.981             3404952.622    9.29667
              698755.903             3405006.625    9.33163
              698777.034              3404961.31    9.29667
              698756.284             3405020.595    9.33163
              698745.719             3405043.253    9.33163
              698713.641             3405097.256    9.36437
              698734.772              3405051.94    9.33163
              698714.022             3405111.226    9.36437
              698703.457             3405133.884    9.36437
              698671.379             3405187.887    9.42193
               698692.51             3405142.571    9.3938
              698671.761             3405201.857    9.42193
              698661.195             3405224.514    9.42193
              698650.248             3405233.202    9.42193
              698677.456             3405307.954    9.44823
              697905.002             3406816.599    9.75087
              697882.344             3406806.034    9.75087
              697784.902             3407074.153    9.77767
              697780.958             3407075.978    9.77767
              697746.268             3407142.555    9.77767
              697747.402             3407158.159    9.78653
                697735.9             3407165.305    9.78653
              697704.326             3407233.335    9.78653
                697705.8             3407241.937    9.78653
              697696.595             3407257.314    9.78823
              697665.495             3407325.566    9.78823
              697660.909             3407339.871    9.80417
               697649.24              3407345.57    9.80417
              697619.726             3407414.561    9.80417
              697621.432              3407429.74    9.81153
              697610.552             3407437.867    9.81153
               697602.42             3407571.998    9.81143
              697602.997             3407583.921    9.81143
              697590.319             3407593.939    9.81143
              697396.333             3407848.288    9.82847
              697418.991             3407858.853    9.82847
              699216.706             3404269.838    8.74433
              699184.628             3404323.841    8.74433
              699205.759             3404278.525    8.74433
               699185.01             3404337.811    8.74433
              699174.444             3404360.468    8.81423
              699146.015             3404411.576    8.85337
              699136.702              3404411.83    8.85337
              699114.044             3404401.265    8.85337
              699163.497             3404369.156    8.81423
              699154.077             3404433.724    8.81423
              699133.955             3404534.679    9.03353
              699135.132             3404543.883    9.03353
              699113.752             3404558.868    9.03353
              699103.935              3404554.39    9.03353
              699101.249             3404547.013    9.03353
              698888.414             3404944.286    9.29223
              698851.679             3405009.909    9.33163
              698854.078             3405022.497    9.33163
               698841.29             3405032.649    9.33163
              698811.793             3405101.648    9.36437
              698812.428             3405115.779    9.36437
              698801.555             3405124.459    9.36437
              698768.759             3405191.919    9.42347
              698768.383              3405213.72    9.42347
              698761.628             3405216.178    9.42347
              698714.084             3405318.138    9.4501
              698691.426             3405307.572    9.44823
               698720.13             3405334.749    9.4501
              698709.564             3405357.407    9.475
              698698.617             3405366.095    9.475
              698725.825             3405440.847    9.51983
              697995.632             3406858.861    9.75087
              697972.975             3406848.296    9.75087
              697961.086             3406932.947    9.761
              697945.502             3406937.385    9.761
                697938.3             3406933.929    9.761
              697935.996             3406927.597    9.761
              697584.264             3407729.038    9.8303
              697587.907             3407745.318    9.8303
              697584.087             3407751.733    9.8303
              697578.297              3407753.84    9.8303
              697486.964              3407890.55    9.84087
              697509.621             3407901.115    9.84087
              699311.856              3404272.83    8.74433
              699289.198             3404262.265    8.74433
              699239.572             3404418.422    8.81423
              699241.314             3404430.357    8.81423
              699228.549             3404440.867    8.88063
              698762.452              3405451.03    9.51983
              698739.795             3405440.465    9.51983
              698768.499             3405467.642    9.51983
              698757.933               3405490.3    9.51983
              698746.986             3405498.987    9.51983
              698774.193             3405573.739    9.54003
              698086.263             3406901.123    9.76573
              698063.606             3406890.557    9.76573
              698052.293             3406973.973    9.77067
              698037.438              3406976.49    9.77067
              698029.295             3406964.137    9.761
              697577.595             3407932.811    9.84087
              697600.252             3407943.377    9.84087
              697630.483             3408026.435    9.8556
              697619.917             3408049.092    9.8556
              697405.967             3408507.911    9.86217
              697360.651              3408486.78    9.86217
              697346.681             3408487.161    9.86217
              697357.017             3408583.306    9.8641
              697343.759             3408584.732    9.8641
              697333.757             3408574.032    9.8641
              699402.487             3404315.092    8.6923
              699379.829             3404304.527    8.6923
              698810.821             3405583.923    9.53933
              698788.164             3405573.358    9.53933
              698816.868             3405600.535    9.53933
              698806.302             3405623.192    9.55813
              698795.355              3405631.88    9.55813
              698822.562             3405706.632    9.57563
              698176.894             3406943.385    9.76927
              698154.236             3406932.819    9.76927
              698142.339             3407017.487    9.7751
              698128.117             3407018.906    9.7751
              698119.829             3407006.606    9.7751
               697627.49             3408121.585    9.85937
              697681.493             3408153.663    9.86283
              697636.178             3408132.532    9.85937
              697594.328             3408340.589    9.8709
              697583.763             3408363.247    9.8709
              697552.066              3408431.22    9.87287
              697541.501             3408453.877    9.87287
              697509.804              3408521.85    9.86977
              697499.239             3408544.508    9.86977
              697491.941               3408550.3    9.86977
              697451.282             3408529.042    9.86977
              697437.312             3408529.423    9.86977
              697414.654             3408518.858    9.8641
