              721128.132             3408705.619    0.6894
              721126.214             3408683.023    0.6894
              721124.175             3408660.607    0.6894
              721116.961             3408546.502    0.68503
              721115.691             3408523.823    0.68503
              721114.934             3408500.971    0.68503
              721164.579              3408498.62    0.6319
              721163.472              3408476.07    0.6319
              721113.831             3408478.421    0.68503
              721113.316             3408455.838    0.68503
              721162.214             3408453.757    0.6319
              721161.193             3408431.485    0.6319
              721112.373              3408433.56    0.68503
              721092.777             3408867.453    0.69243
              721090.184             3408845.447    0.69243
              721036.454              3408851.77    0.69243
              721034.179             3408830.077    0.69243
              721087.436             3408823.306    0.69243
              721084.892              3408800.88    0.69243
              721031.665              3408807.68    0.74417
               721029.72             3408784.177    0.74417
              721082.365             3408778.607    0.6894
              721080.151             3408755.798    0.6894
              721027.524             3408761.364    0.74417
              721025.791             3408737.885    0.74417
              721077.931             3408733.268    0.6894
              721076.056             3408710.255    0.6894
              721023.932             3408714.864    0.74417
              721022.506             3408691.258    0.7428
              721074.139             3408687.546    0.6894
              721072.598             3408664.362    0.7428
              721020.979             3408668.065    0.7428
              721019.887             3408644.331    0.7428
              721070.984             3408641.575    0.7428
               721069.78             3408618.232    0.7428
              721018.694             3408620.995    0.7428
              721017.968             3408597.159    0.74133
              721068.454              3408595.24    0.74133
              721067.596             3408571.815    0.74133
              721017.119             3408573.737    0.74133
               721016.79             3408549.881    0.74133
              721066.565             3408548.806    0.74133
               721066.06             3408525.405    0.74133
              721016.295              3408526.48    0.74133
              721016.397             3408502.746    0.73987
               721065.31              3408502.54    0.68503
              721065.164             3408479.317    0.68503
              721016.259              3408479.53    0.73987
               721016.83             3408456.098    0.73987
              721064.657             3408456.744    0.68503
              721064.924             3408433.861    0.68503
              721017.079             3408433.235    0.73987
              720980.167             3408835.747    0.74417
              720978.605             3408813.137    0.74417
              720927.502             3408817.565    0.79787
              720925.206             3408793.808    0.79787
              720976.708             3408789.575    0.74417
              720975.195             3408765.837    0.74417
              720923.714             3408770.029    0.79787
              720922.228             3408745.654    0.79787
              720973.487             3408742.322    0.74417
              720972.223             3408718.431    0.74417
               720920.98             3408721.728    0.79787
              720919.872             3408697.261    0.79787
              720970.818             3408694.799    0.74417
              720969.859              3408670.73    0.7428
              720918.926             3408673.161    0.7967
               720918.23             3408648.508    0.7967
              720968.786             3408646.976    0.7428
              720968.188             3408622.732    0.7428
              720917.643             3408624.237    0.7967
              720917.399             3408599.406    0.79533
              720967.477             3408598.883    0.74133
              720967.297             3408574.511    0.74133
              720917.227             3408575.014    0.79533
              720917.488             3408550.073    0.79533
              720966.981             3408550.648    0.74133
              720967.278             3408526.254    0.74133
              720917.791             3408525.664    0.79533
               720918.62             3408500.742    0.7937
              720967.392             3408502.517    0.73987
              720968.234             3408478.264    0.73987
              720919.467              3408476.48    0.7937
              720920.976             3408451.735    0.7937
              720968.815             3408454.836    0.73987
              720970.314             3408430.972    0.73987
              720877.504             3408822.061    0.79787
              720824.497             3408803.864    0.84793
              720875.303             3408799.234    0.79787
              720873.324             3408774.062    0.84793
              720822.529             3408778.583    0.84793
              720820.935             3408752.934    0.84793
              720871.865             3408749.608    0.84793
              720870.486             3408724.621    0.84793
              720819.563             3408727.871    0.84793
              720818.499             3408702.222    0.84793
              720869.394             3408700.097    0.84793
              720868.537             3408674.982    0.84703
              720817.649             3408677.051    0.84703
              720817.103             3408651.215    0.84703
              720867.853             3408650.284    0.84703
              720867.513              3408624.96    0.84703
              720816.769             3408625.847    0.84703
              720816.758             3408599.796    0.8458
               720867.28             3408600.094    0.8458
              720867.486             3408574.575    0.8458
              720816.967             3408574.244    0.8458
              720817.533             3408548.021    0.8458
              720867.754              3408549.61    0.8458
              720868.557             3408523.981    0.8458
              720818.338             3408522.368    0.8458
              720819.553               3408496.1    0.84413
               720869.39             3408499.042    0.84413
              720870.863             3408473.449    0.84413
              720821.026             3408470.491    0.84413
              720822.941             3408444.346    0.84413
              720872.389             3408448.697    0.84413
              720772.602             3408807.898    0.84793
              720720.435             3408811.149    0.84793
              720770.927              3408781.94    0.84793
              720718.817             3408785.171    0.84793
              720717.354             3408758.889    0.84793
              720769.334             3408756.269    0.84793
              720768.126             3408730.279    0.84793
              720716.148             3408732.858    0.84793
              720715.227             3408706.232    0.84793
              720767.067             3408704.591    0.84793
              720766.344             3408678.355    0.84703
              720714.509             3408679.956    0.84703
              720714.092                 3408653    0.84703
              720765.806             3408652.484    0.84703
              720765.601              3408625.98    0.84703
              720713.889             3408626.461    0.84703
              720713.952             3408599.209    0.8458
              720765.596               3408599.9    0.8458
              720765.946             3408573.144    0.8458
              720714.301             3408572.424    0.8458
               720714.83             3408544.892    0.8458
              720766.515             3408546.898    0.8458
              720767.472             3408519.968    0.8458
              720715.784             3408517.938    0.8458
              720716.745             3408490.155    0.84413
              720768.688             3408493.679    0.84413
              720770.333             3408466.775    0.84413
              720718.379             3408463.224    0.84413
               720720.01             3408435.689    0.84413
              720772.288             3408440.608    0.84413
              720774.713                 3408414    0.84413
              720722.564             3408408.968    0.84413
              720668.104             3408814.771    0.89257
              720614.416             3408818.726    0.89257
              720666.334             3408788.067    0.89257
              720612.434              3408792.06    0.89257
               720611.74             3408764.506    0.89257
              720664.861             3408761.763    0.89257
              720663.746             3408734.806    0.89257
              720610.647             3408737.553    0.89257
              720610.468              3408709.58    0.89257
              720662.827              3408708.15    0.89257
              720662.244              3408680.86    0.89187
              720609.899             3408682.281    0.89187
                  720610             3408654.258    0.89187
              720661.831             3408653.877    0.89187
              720661.699             3408626.313    0.89187
              720609.877             3408626.684    0.89187
              720610.307             3408598.523    0.89067
              720661.765             3408599.039    0.89067
              720662.022             3408571.215    0.89067
              720610.568             3408570.695    0.89067
              720611.339             3408542.392    0.89067
              720662.549             3408543.673    0.89067
              720663.118             3408515.608    0.89067
              720611.905             3408514.336    0.89067
              720612.996             3408485.938    0.88913
              720664.071             3408487.841    0.88913
              720664.818             3408459.528    0.88913
              720613.726             3408457.666    0.88913
              720615.258             3408428.977    0.88913
              720666.416             3408432.019    0.88913
              720668.006             3408403.978    0.88913
               720616.74             3408400.951    0.92347
              720619.152               3408371.7    0.92347
              720558.309             3408822.379    0.93053
              720507.672             3408851.751    0.96063
              720506.681             3408823.414    0.96063
              720557.828             3408794.351    0.93053
              720506.431             3408795.314    0.96063
              720506.167             3408766.748    0.96123
              720557.164             3408766.747    0.93053
              720557.641             3408738.632    0.93053
              720506.666             3408738.568    0.96123
              720506.846             3408710.244    0.96123
              720557.509             3408710.619    0.93053
              720557.993             3408682.445    0.93003
              720507.346             3408682.032    0.96113
              720507.835             3408653.479    0.96113
              720558.123             3408654.402    0.93003
              720558.795             3408626.022    0.93003
              720508.519             3408625.077    0.96113
              720509.359             3408596.247    0.96027
              720559.245             3408597.852    0.92903
              720560.211             3408569.241    0.92903
              720510.334             3408567.625    0.96027
              720511.557             3408538.541    0.96027
              720560.997              3408540.94    0.92903
              720562.334             3408512.128    0.92903
              720512.898              3408509.73    0.92763
              720514.538             3408480.412    0.92763
              720563.435             3408483.743    0.92763
               720565.23             3408454.745    0.92763
              720516.331             3408451.429    0.92763
              720518.432             3408421.815    0.92763
              720566.758              3408426.07    0.92763
              720569.153             3408396.899    0.92347
              720520.827             3408392.641    0.92347
              720523.312              3408362.88    0.92347
              720571.412             3408367.882    0.92347
              720574.176             3408338.235    0.92347
              720526.159             3408333.958    0.92347
              720462.112              3408881.62    0.96063
              720460.499              3408853.32    0.96063
              720412.597             3408856.534    0.9845
              720411.134             3408827.421    0.9845
              720459.657             3408825.182    0.96063
               720458.53             3408796.236    0.96063
               720410.01             3408798.458    0.9845
               720409.36             3408768.893    0.9852
              720458.251             3408767.643    0.96123
              720457.853             3408738.851    0.96123
              720408.972             3408740.045    0.9852
              720408.918             3408710.624    0.9852
              720458.049             3408710.487    0.96123
              720458.216             3408681.594    0.96113
              720409.097             3408681.684    0.98527
              720409.571             3408652.172    0.98527
              720458.719             3408652.999    0.96113
              720459.375             3408623.871    0.96113
              720410.235             3408623.004    0.98527
              720411.188             3408593.297    0.9846
              720460.226             3408595.007    0.96027
              720461.328             3408565.622    0.96027
              720412.295             3408563.884    0.9846
              720413.697             3408533.974    0.9846
              720462.559             3408536.514    0.96027
              720464.086             3408506.899    0.95903
              720415.226             3408504.339    0.98353
              720417.059             3408474.236    0.98353
              720465.729             3408477.566    0.95903
              720467.673             3408447.725    0.95903
              720418.999             3408444.382    0.98353
              720421.258             3408414.127    0.95523
              720469.773             3408418.102    0.95523
              720472.137             3408387.884    0.95523
              720423.677              3408383.93    0.95523
              720474.881             3408358.664    0.95523
              720362.914             3408859.053    0.9845
              720311.785             3408831.904    0.9845
               720361.45             3408830.168    0.9845
              720360.588             3408800.001    0.9845
              720310.899             3408801.681    0.9845
              720310.348             3408771.216    0.9852
              720359.952              3408770.39    0.9852
              720359.669             3408740.527    0.9852
              720310.074             3408741.305    0.9852
              720310.089             3408710.933    0.9852
              720359.629             3408711.064    0.9852
              720359.893             3408681.189    0.98527
              720310.362             3408681.014    0.98527
              720310.919             3408650.568    0.98527
               720360.38             3408651.638    0.98527
              720361.158             3408621.602    0.98527
              720311.705             3408620.495    0.98527
              720312.772             3408589.911    0.9846
              720362.121             3408591.866    0.9846
              720363.382             3408561.633    0.9846
              720314.037              3408559.65    0.9846
              720315.586             3408528.924    0.9846
              720364.791             3408531.701    0.9846
              720366.506             3408501.286    0.98353
              720317.302             3408498.492    0.98353
              720319.306             3408467.661    0.98353
              720368.342             3408471.166    0.98353
              720370.521             3408440.586    0.98353
              720321.453              3408437.07    0.98353
              720261.702             3408833.624    0.9845
              720211.398             3408834.953    1.0023
              720260.934             3408802.786    0.9845
              720210.628             3408804.088    1.0023
              720210.149             3408772.849    1.00297
              720260.383             3408772.288    0.9852
              720260.176             3408741.541    0.9852
              720209.948             3408742.063    1.00297
              720210.018             3408710.803    1.00297
              720260.199             3408711.133    0.9852
              720260.523             3408680.318    0.98527
              720210.348             3408679.949    1.00317
              720210.965               3408648.6    1.00317
              720261.089             3408649.838    0.98527
              720261.938             3408618.894    0.98527
               720211.82             3408617.622    1.00317
              720212.981             3408586.167    1.00273
              720263.012             3408588.281    0.9846
              720264.366             3408557.199    0.9846
              720214.339             3408555.058    1.00273
              720216.031             3408523.529    1.00273
              720265.921             3408526.451    0.9846
              720267.748             3408495.277    0.98353
              720217.861             3408492.334    1.00193
              720220.054             3408460.825    1.00193
              720269.755             3408464.425    0.98353
              720272.008             3408433.259    0.98353
              720222.322             3408429.641    1.00193
              720160.884             3408836.701    1.0023
              720109.926             3408838.021    1.01507
              720160.081             3408805.032    1.0023
              720109.161             3408806.318    1.01507
              720108.734             3408774.196    1.01563
              720159.606             3408773.762    1.00297
              720159.414             3408742.102    1.00297
              720108.546             3408742.503    1.01563
              720108.677             3408710.326    1.01563
              720159.489             3408710.813    1.00297
              720159.855             3408679.067    1.00317
              720109.046             3408678.549    1.016
              720109.759             3408646.262    1.016
              720160.479              3408647.69    1.00317
              720161.412             3408615.825    1.00317
              720110.694             3408614.368    1.016
              720112.011             3408581.972    1.01573
              720162.577             3408584.344    1.00273
              720164.082             3408552.372    1.00273
              720113.517             3408549.975    1.01573
              720115.452             3408517.532    1.01573
              720165.778             3408520.821    1.00273
              720167.844             3408488.823    1.00193
              720117.519             3408485.512    1.01517
              720120.098             3408453.198    1.01517
               720170.04             3408457.295    1.00193
              720172.626             3408425.427    1.00193
              720122.818             3408421.085    1.01447
              720125.814             3408389.241    1.01447
              720175.279             3408394.007    1.01447
              720129.222             3408357.282    1.01447
              720058.541             3408839.554    1.02403
              720006.984             3408840.582    1.02403
              720057.897             3408807.065    1.02403
              720006.349             3408808.072    1.02403
              720005.994             3408775.114    1.02447
              720057.471             3408774.918    1.02447
               720057.38              3408742.36    1.02447
              720005.904              3408742.53    1.02447
              720006.129             3408709.424    1.02447
              720057.514             3408710.159    1.02447
              720057.997              3408677.46    1.02487
              720006.614               3408676.7    1.02487
              720007.466             3408643.413    1.02487
              720058.712              3408645.15    1.02487
              720059.813             3408612.296    1.02487
              720008.567             3408610.535    1.02487
              720010.082             3408577.084    1.02483
              720061.132             3408579.879    1.01573
              720062.889             3408546.905    1.01573
              720011.837             3408544.088    1.02483
              720014.037              3408510.54    1.02463
              720064.826             3408514.444    1.01573
              720067.265             3408481.457    1.01517
              720016.473              3408477.53    1.02463
              720019.452             3408444.159    1.02463
              720069.976             3408448.897    1.01517
              720022.657             3408411.016    1.02433
              720026.246             3408378.153    1.02433
              720076.334             3408384.088    1.01447
              720072.991             3408416.355    1.01447
              720030.546             3408345.528    1.02433
              720079.983             3408352.011    1.01447
              719955.217             3408841.975    1.03053
              719903.357             3408842.952    1.03053
              719954.596             3408808.659    1.03053
              719902.735             3408809.618    1.03053
              719902.324             3408775.751    1.03083
              719954.241             3408775.679    1.03083
              719954.209             3408742.183    1.03083
              719902.292             3408742.233    1.03083
              719902.564             3408708.115    1.03083
              719954.436             3408709.056    1.03083
              719955.036             3408675.341    1.03127
              719903.165             3408674.379    1.03127
              719904.153             3408640.019    1.03127
               719955.89             3408642.036    1.03127
              719957.165             3408608.109    1.03127
              719905.426             3408606.074    1.03127
              719907.152             3408571.511    1.0315
               719958.68             3408574.643    1.0315
              719960.655             3408540.548    1.0315
              719909.125             3408537.401    1.0315
              719911.608             3408502.709    1.0316
              719962.853             3408506.988    1.0316
              719965.544             3408472.806    1.0316
              719914.293             3408468.519    1.0316
              719917.613              3408433.88    1.0316
              719968.578             3408439.083    1.0316
              719921.146              3408399.39    1.03177
              719925.043              3408365.16    1.03177
              719975.625             3408371.679    1.02433
              719971.936             3408405.258    1.02433
              719980.016             3408338.319    1.02433
              719929.331             3408331.005    1.03177
              719851.578             3408844.559    1.03597
              719850.714              3408810.28    1.03597
              719798.624             3408811.624    1.03597
               719797.98             3408776.587    1.0362
              719850.304             3408776.389    1.0362
              719850.201             3408741.816    1.0362
              719797.877             3408741.992    1.0362
              719798.102             3408706.664    1.0362
              719850.473             3408707.677    1.0362
              719851.139             3408672.828    1.0368
              719798.767             3408671.797    1.0368
              719799.814             3408636.209    1.0368
              719852.128             3408638.449    1.0368
              719853.579             3408603.359    1.0368
              719801.264             3408601.102    1.03727
              719803.133             3408565.294    1.03727
              719855.305             3408568.782    1.03727
              719857.558               3408533.5    1.03727
              719805.382             3408529.999    1.03727
              719808.085             3408494.026    1.03783
               719860.04             3408498.798    1.03783
              719863.123             3408463.398    1.03783
              719811.162             3408458.618    1.03783
              719814.838              3408422.74    1.03783
              719866.564             3408428.433    1.03783
              719823.013             3408350.928    1.0385
              719874.587             3408358.395    1.0385
              719870.387             3408393.335    1.0385
              719818.808             3408386.987    1.0385
              719879.272             3408323.514    1.0322
              719827.977             3408315.999    1.0403
              719694.874             3408850.259    1.04183
              719746.207             3408812.622    1.03597
              719693.596             3408814.545    1.04183
              719692.769             3408778.077    1.042
              719745.559             3408777.563    1.0362
              719745.277             3408741.691    1.0362
              719692.489             3408742.183    1.042
              719692.619             3408705.471    1.042
              719745.503              3408706.34    1.0362
              719746.112             3408670.211    1.0368
              719693.227             3408669.322    1.04237
              719694.247             3408632.394    1.04237
              719747.161             3408634.604    1.0368
              719748.632             3408598.243    1.03727
              719695.716             3408596.015    1.04367
              719697.589             3408558.881    1.04367
              719750.501              3408562.42    1.03727
              719752.828             3408525.854    1.03727
               719699.91             3408522.302    1.03727
              719702.615             3408484.981    1.03783
              719755.528             3408489.871    1.03783
              719758.722             3408453.154    1.03783
              719705.799             3408448.253    1.03783
              719709.471             3408411.042    1.0385
              719762.417             3408416.933    1.0385
              719717.847             3408336.843    1.0385
              719770.825             3408344.421    1.0385
               719766.48             3408380.508    1.0385
               719713.45             3408373.927    1.0385
              719775.737             3408307.607    1.0403
              719722.653             3408299.882    1.0403
              719642.181             3408853.038    1.04183
              719588.789             3408855.592    1.04943
              719640.638             3408815.905    1.04183
               719587.11             3408818.453    1.04943
              719586.473             3408780.256    1.0497
              719639.815             3408779.408    1.042
              719639.415              3408742.08    1.042
              719586.083             3408742.909    1.0497
               719586.35             3408704.692    1.0497
              719639.551             3408705.343    1.042
              719640.098             3408667.839    1.04237
              719586.902             3408667.169    1.0502
              719588.043             3408628.869    1.0502
               719641.12             3408630.891    1.04237
              719642.548             3408593.199    1.04367
              719589.471             3408591.164    1.0522
              719591.479             3408552.741    1.0522
              719644.421             3408556.053    1.04367
              719646.681             3408518.173    1.04367
              719593.734             3408514.853    1.0522
              719596.595             3408476.323    1.0537
              719649.381             3408480.845    1.04467
              719652.417             3408442.803    1.04467
               719599.62             3408438.279    1.0537
              719603.333             3408399.746    1.0555
               719655.98             3408405.257    1.0459
              719611.401             3408322.977    1.04913
              719663.867             3408329.601    1.04913
              719659.792             3408367.432    1.0459
              719607.214             3408361.296    1.0555
              719668.283             3408291.735    1.04913
              719615.885             3408284.455    1.04913
              719611.991             3408145.393    1.06623
              719534.152             3408858.664    1.04943
              719481.828             3408899.659    1.0599
                719480.4             3408860.256    1.06003
              719533.191              3408819.92    1.04943
              719479.727             3408821.438    1.06003
              719479.365             3408782.055    1.0605
              719532.585             3408781.673    1.0497
              719532.618             3408742.855    1.0497
              719479.413             3408743.192    1.0605
              719479.955             3408703.685    1.0605
              719532.905             3408704.601    1.0497
              719533.766             3408665.716    1.0502
              719480.827             3408664.772    1.06123
              719482.296             3408625.158    1.06123
              719534.919             3408627.389    1.0502
              719536.652             3408588.369    1.0522
              719484.035             3408586.119    1.0641
              719486.442             3408546.381    1.0641
              719538.667             3408549.929    1.0522
              719541.298             3408510.765    1.0537
              719489.074             3408507.207    1.06617
              719492.434             3408467.371    1.06617
               719544.16             3408472.224    1.0537
              719547.703             3408432.959    1.0537
              719495.974             3408428.105    1.06617
              719500.359             3408388.315    1.0686
              719551.596             3408394.128    1.0555
              719510.126             3408309.219    1.07483
              719560.553             3408316.269    1.06023
               719555.88              3408355.14    1.0555
              719504.989              3408348.72    1.0686
              719565.672             3408277.311    1.06023
              719515.728             3408269.707    1.07483
              719515.119             3408127.609    1.08277
              719430.618             3408941.008    1.0599
               719428.77             3408902.477    1.0599
               719374.31             3408864.042    1.0747
              719427.695             3408862.399    1.06003
                719426.8             3408822.391    1.06003
              719373.431             3408823.983    1.0747
              719373.463             3408783.152    1.07547
              719426.456             3408782.963    1.0605
              719426.617             3408742.826    1.0605
              719373.641             3408742.972    1.07547
              719374.708             3408702.068    1.07547
              719427.178              3408703.28    1.0605
              719428.345             3408663.057    1.06123
              719375.889             3408661.809    1.07673
              719377.942             3408620.835    1.07673
              719429.829              3408623.41    1.06123
              719431.985             3408583.066    1.0641
               719380.11             3408580.465    1.08053
              719383.152             3408539.393    1.08053
              719434.405             3408543.304    1.0641
              719437.559             3408502.835    1.06617
              719386.314             3408498.906    1.08323
              719390.364             3408457.754    1.08323
              719440.928             3408462.981    1.06617
              719445.095             3408422.437    1.06617
              719394.534             3408417.198    1.08637
              719399.663             3408376.107    1.08637
              719449.652             3408382.309    1.0686
              719410.956             3408294.509    1.09417
              719460.165             3408301.958    1.07483
               719454.67             3408342.102    1.0686
              719405.041             3408335.259    1.08637
              719466.187             3408261.861    1.07483
              719417.653             3408254.284    1.09417
              719420.333             3408107.848    1.10387
              719265.822             3408866.955    1.0747
              719320.017             3408865.815    1.0747
              719319.878             3408824.319    1.0747
              719265.717             3408824.904    1.0747
               719266.93             3408782.698    1.07547
              719319.927             3408783.448    1.0747
              719320.905             3408741.944    1.07547
              719267.937              3408741.17    1.07547
               719270.11             3408698.919    1.07547
              719321.991             3408701.003    1.07547
              719323.967              3408659.48    1.07673
              719272.112             3408657.373    1.07673
              719275.148             3408615.145    1.07673
              719326.038             3408618.473    1.07673
              719328.994             3408576.859    1.10247
              719278.126             3408573.505    1.10247
              719282.096             3408531.207    1.10247
              719332.052             3408535.759    1.10247
              719336.007             3408494.035    1.08323
              719286.064              3408489.46    1.10583
              719291.017             3408447.095    1.10583
              719340.069             3408452.861    1.08323
              719345.044             3408411.075    1.08637
                  719296             3408405.291    1.10977
              719302.007             3408362.981    1.10977
               719350.37             3408369.653    1.08637
              719362.296             3408286.515    1.09417
              719356.187             3408328.213    1.09417
              719308.242             3408320.932    1.11913
              719369.361             3408245.524    1.09417
              719311.064             3408170.069    1.12457
              719329.419              3408086.94    1.1305
                719128.4             3409018.262    1.11747
              719129.151             3408930.757    1.1185
              719209.541              3408866.55    1.0944
               719211.46             3408825.015    1.0944
              719212.931             3408781.265    1.09567
              719215.402             3408739.442    1.09567
              719167.581             3408693.387    1.09567
               719218.01              3408696.74    1.09567
              719221.242              3408654.11    1.0974
              719170.846             3408650.722    1.0974
              719174.952             3408607.521    1.0974
              719224.315             3408611.852    1.0974
              719228.377             3408569.117    1.10247
              719179.038             3408564.758    1.10247
              719184.052             3408521.425    1.10247
              719232.372             3408526.792    1.10247
              719237.355             3408483.939    1.10583
              719189.052             3408478.545    1.10583
              719195.028             3408435.121    1.10583
              719242.325             3408441.549    1.10583
              719248.284             3408398.635    1.10977
              719200.999             3408392.186    1.10977
              719207.966             3408348.766    1.10977
              719254.525             3408356.017    1.10977
              719261.265             3408313.433    1.11913
              719214.939             3408305.883    1.1142
              719222.382              3408150.89    1.12457
               719242.52             3408065.684    1.1305
              719023.318             3409019.131    1.1472
              719026.031             3408928.311    1.14807
              719031.224             3408838.392    1.1514
              719037.921             3408750.367    1.15387
              719117.686             3408690.086    1.12403
              719121.835             3408646.484    1.12403
              719078.106             3408598.031    1.13047
              719125.973             3408603.247    1.12403
              719131.043             3408559.516    1.13047
              719083.205             3408554.275    1.13047
              719089.322             3408509.981    1.1346
              719136.084             3408516.155    1.13047
              719142.107             3408472.293    1.1346
              719095.369             3408466.096    1.1346
              719102.444             3408421.726    1.1346
              719148.103             3408428.845    1.1346
              719155.104             3408384.928    1.10977
              719109.459             3408377.786    1.13927
              719117.501             3408333.431    1.13927
              719162.086             3408341.487    1.10977
              719170.078              3408297.63    1.1142
              719125.502             3408289.556    1.14447
              719137.311              3408131.11    1.1631
               719159.32             3408044.252    1.1369
              718915.486             3409016.236    1.18287
              718921.455              3408922.86    1.1844
              718929.379             3408831.316    1.18913
              718938.982             3408740.915    1.1924
              718983.505             3408586.426    1.1649
              719030.271             3408592.708    1.1649
               719036.52              3408548.08    1.1649
              718989.784             3408541.781    1.1649
               718997.15             3408496.671    1.1698
              719042.669              3408503.77    1.1698
              719049.855             3408459.023    1.1698
              719004.361             3408451.911    1.1698
              719012.632             3408406.736    1.17517
              719056.952             3408414.636    1.17517
              719065.084             3408369.852    1.13927
              719020.784              3408361.94    1.17517
              719029.967             3408316.796    1.18113
              719073.142             3408325.479    1.14447
              719082.224              3408280.77    1.14447
               719039.06             3408272.071    1.18113
              719055.151             3408110.521    1.20197
              719079.233             3408022.076    1.1703
              718806.823              3409008.55    1.22463
              718816.938             3408913.357    1.22693
               718828.48             3408820.364    1.23313
              718841.369             3408728.601    1.23713
              718890.705             3408572.446    1.20573
              718936.552             3408579.903    1.20573
              718944.146             3408534.541    1.20573
              718898.328             3408527.072    1.20573
              718907.054             3408481.324    1.2113
              718951.543              3408489.42    1.2113
              718960.004             3408443.953    1.2113
              718915.543             3408435.848    1.2113
               718925.09             3408390.048    1.21743
              718968.305              3408398.77    1.21743
              718977.638             3408353.278    1.17517
              718934.449              3408344.55    1.21743
              718944.809             3408298.783    1.2241
              718986.843             3408308.124    1.18113
              718997.051             3408262.713    1.18113
              718955.034             3408253.366    1.2241
              718975.259             3408089.072    1.20197
              719001.296             3407998.884    1.20983
               718698.96              3408995.55    1.27257
              718713.384             3408899.519    1.22693
              718728.696             3408805.673    1.23313
              718745.042             3408713.029    1.23713
               718799.52             3408555.958    1.2527
              718844.558             3408564.638    1.2527
              718853.596             3408518.725    1.2527
              718808.586             3408510.037    1.259
              718818.734             3408463.841    1.259
              718862.351              3408472.97    1.259
              718872.161             3408426.964    1.259
              718828.572             3408417.829    1.2658
              718839.433             3408371.592    1.2658
              718881.737             3408381.158    1.2658
              718892.313             3408335.144    1.21743
              718850.037             3408325.574    1.27313
              718861.588             3408279.375    1.27313
              718902.701             3408289.372    1.2241
              718914.031             3408243.433    1.2241
              718872.944             3408233.434    1.28927
              718896.993             3408066.883    1.247
              718924.678             3407974.986    1.25557
              718592.775             3408977.813    1.3268
              718611.187             3408881.569    1.33047
              718630.179             3408787.338    1.28327
               718649.83             3408694.024    1.288
              718709.736             3408536.899    1.2527
              718754.103             3408546.827    1.2527
              718764.631             3408500.551    1.259
              718720.293             3408490.618    1.259
              718731.886              3408444.16    1.259
              718774.808             3408454.349    1.259
              718785.998             3408407.995    1.2658
              718743.105             3408397.802    1.2658
              718755.293             3408351.322    1.2658
              718796.889             3408361.754    1.2658
              718808.716              3408315.41    1.27313
               718767.15             3408304.976    1.27313
              718779.885             3408258.546    1.27313
              718820.296             3408269.206    1.27313
              718832.729             3408222.936    1.28927
              718792.348             3408212.275    1.28927
              718819.884             3408044.143    1.30727
              718848.818             3407950.663    1.31703
              718488.306             3408956.201    1.39223
              718510.351             3408859.932    1.40277
              718620.998             3408515.225    1.2992
              718664.905             3408526.428    1.2992
               718676.93             3408479.965    1.31267
               718633.05             3408468.758    1.31267
              718646.076              3408422.21    1.31267
              718688.551             3408433.503    1.31267
              718701.126             3408386.984    1.32017
              718658.681             3408375.687    1.32017
              718672.187             3408329.148    1.3282
              718713.343               3408340.5    1.2658
              718726.417              3408294.02    1.27313
              718685.295             3408282.667    1.3282
              718699.213             3408236.212    1.34577
              718739.185             3408247.586    1.27313
              718752.699             3408201.196    1.28927
              718712.763              3408189.82    1.28927
              718743.631             3408021.046    1.36527
               718773.22             3407926.771    1.3758
              718454.361              3408770.26    1.40893
              718466.552             3408723.452    1.40893
              718479.666             3408676.779    1.41573
               718492.23             3408630.284    1.41573
              718505.752             3408583.798    1.4231
              718518.777             3408537.357    1.4231
              718532.755             3408490.879    1.37263
              718576.516             3408503.396    1.37263
              718590.001             3408456.893    1.37263
              718546.269             3408444.375    1.37263
              718560.694             3408397.871    1.38083
              718603.055              3408410.34    1.38083
              718616.993             3408363.816    1.32017
              718574.664             3408351.346    1.38083
              718589.487             3408304.902    1.3896
               718630.53             3408317.272    1.3282
              718644.852             3408270.835    1.3282
              718603.845             3408258.463    1.3896
              718658.804             3408224.372    1.34577
              718673.417             3408178.073    1.34577
               718637.03             3408090.491    1.35527
              718667.967             3407997.516    1.36527
              718698.407             3407903.667    1.3758
              718301.545             3408933.865    1.46157
              718315.134             3408885.362    1.46157
               718329.26             3408837.453    1.47377
              718342.771              3408789.99    1.47377
              718357.035             3408742.878    1.48077
